ply
format ascii 1.0
element vertex 740
property float x
property float y
property float z
property uchar red
property uchar green
property uchar blue
end_header
2.1042037637216087 -0.998418769175619 4.616933848857304 0 0 0 
1.1184286287331586 -0.31158239512482977 2.8194542714501267 0 0 0 
1.1332063935135182 -0.3154071620940321 2.833728496106301 0 0 0 
1.1479841582938777 -0.3192319290632344 2.8480027207624756 0 0 0 
1.1627619230742374 -0.3230566960324367 2.8622769454186496 0 0 0 
1.0344980334031424 -0.40718276717054347 2.9850056874971855 0 0 0 
1.0505562222003308 -0.41133893226110785 3.0005167067798157 0 0 0 
1.0666144109975193 -0.4154950973516722 3.016027726062446 0 0 0 
1.0826725997947075 -0.4196512624422364 3.0315387453450757 0 0 0 
1.098730788591896 -0.42380742753280076 3.047049764627706 0 0 0 
1.1147889773890844 -0.42796359262336514 3.062560783910336 0 0 0 
1.130847166186273 -0.4321197577139293 3.078071803192966 0 0 0 
1.1469053549834614 -0.4362759228044937 3.093582822475596 0 0 0 
1.1629635437806496 -0.44043208789505806 3.1090938417582263 0 0 0 
1.179021732577838 -0.4445882529856222 3.124604861040856 0 0 0 
1.1950799213750265 -0.4487444180761866 3.1401158803234863 0 0 0 
1.211138110172215 -0.45290058316675075 3.1556268996061165 0 0 0 
1.2271962989694032 -0.4570567482573151 3.1711379188887463 0 0 0 
1.2432544877665916 -0.4612129133478795 3.186648938171377 0 0 0 
1.3844283947796303 -0.38042820057047144 3.076390315261264 0 0 0 
1.3992061595599898 -0.38425296753967375 3.090664539917438 0 0 0 
1.4139839243403494 -0.38807773450887617 3.104938764573612 0 0 0 
1.3990836116260157 -0.41293238711233227 3.150899122370673 0 0 0 
1.3843874711517907 -0.43825299326938927 3.1979250832444093 0 0 0 
1.3699090285234852 -0.4640430536644282 3.2460297119267905 0 0 0 
1.3556618093469106 -0.4903060689818295 3.295226073149787 0 0 0 
1.341659339227879 -0.5170455399059735 3.3455272316453675 0 0 0 
1.3279151437722014 -0.5442649671212416 3.3969462521455034 0 0 0 
1.3144427485856902 -0.571967851312013 3.4494961993821622 0 0 0 
1.3012556792741556 -0.60015769316267 3.5031901380873154 0 0 0 
1.2883674614434109 -0.6288379933575916 3.5580411329929307 0 0 0 
1.2757916206992663 -0.6580122525811594 3.6140622488309786 0 0 0 
1.9693618963186403 -0.10693660965996077 2.748255800762433 0 0 0 
1.9795026325732656 -0.10956122533401946 2.7580509998083613 0 0 0 
1.989643368827891 -0.11218584100807816 2.76784619885429 0 0 0 
1.6208726312653827 -0.4416244720777085 3.3047779097600523 0 0 0 
1.6356503960457422 -0.4454492390469109 3.3190521344162267 0 0 0 
1.6504281608261018 -0.4492740060161131 3.3333263590724007 0 0 0 
1.6652059256064613 -0.45309877298531553 3.3476005837285747 0 0 0 
1.6799836903868208 -0.45692353995451773 3.3618748083847496 0 0 0 
1.6947614551671804 -0.46074830692372015 3.3761490330409236 0 0 0 
1.7095392199475399 -0.46457307389292235 3.3904232576970976 0 0 0 
1.7243169847278994 -0.46839784086212477 3.404697482353272 0 0 0 
1.739094749508259 -0.47222260783132697 3.4189717070094465 0 0 0 
1.7538725142886185 -0.4760473748005294 3.4332459316656205 0 0 0 
1.768650279068978 -0.4798721417697318 3.447520156321795 0 0 0 
1.7834280438493375 -0.483696908738934 3.4617943809779694 0 0 0 
1.798205808629697 -0.4875216757081364 3.4760686056341434 0 0 0 
1.8129835734100566 -0.4913464426773386 3.4903428302903174 0 0 0 
1.827761338190416 -0.49517120964654104 3.504617054946492 0 0 0 
1.8216346351125225 -0.5222966395182029 3.5590520688811687 0 0 0 
2.0980404473737675 -0.2294728054753008 3.060121509295973 0 0 0 
2.109155027246826 -0.2323494704247615 3.070857369043713 0 0 0 
2.1202696071198845 -0.2352261353742222 3.0815932287914527 0 0 0 
2.131384186992943 -0.23810280032368292 3.0923290885391927 0 0 0 
2.1424987668660016 -0.24097946527314373 3.103064948286933 0 0 0 
2.1536133467390606 -0.24385613022260444 3.1138008080346724 0 0 0 
1.788756661867834 -0.7263322319641066 3.974079927515847 0 0 0 
1.8061674112461799 -0.7308384654927294 3.9908974199954375 0 0 0 
1.8235781606245256 -0.7353446990213521 4.007714912475028 0 0 0 
1.8409889100028713 -0.7398509325499749 4.024532404954618 0 0 0 
1.8583996593812169 -0.7443571660785975 4.041349897434209 0 0 0 
1.8758104087595626 -0.7488633996072203 4.058167389913799 0 0 0 
1.8932211581379084 -0.753369633135843 4.074984882393389 0 0 0 
1.9106319075162541 -0.7578758666644658 4.09180237487298 0 0 0 
1.9280426568945996 -0.7623821001930884 4.10861986735257 0 0 0 
1.9454534062729452 -0.7668883337217112 4.12543735983216 0 0 0 
1.9628641556512911 -0.771394567250334 4.142254852311751 0 0 0 
1.9802749050296367 -0.7759008007789567 4.159072344791342 0 0 0 
2.298102885088822 -0.28125277456559383 3.253366984755292 0 0 0 
2.309217464961881 -0.28412943951505454 3.2641028445030322 0 0 0 
2.3203320448349394 -0.28700610446451535 3.2748387042507723 0 0 0 
2.331446624707998 -0.28988276941397606 3.2855745639985123 0 0 0 
2.2968369280203342 -0.37676661510214293 3.45361014229891 0 0 0 
2.2362026775982704 -0.5172288544930306 3.723292556223448 0 0 0 
2.1989123346540467 -0.6199432934520159 3.9234743425512546 0 0 0 
2.226760987260123 -0.5984399178150035 3.890021120663197 0 0 0 
2.190687626800708 -0.7064266536911734 4.10179907584655 0 0 0 
2.140855182810353 -0.8494780513634075 4.381481039655579 0 0 0 
2.1042037637216087 -0.9721871306748004 4.623962595209744 0 0 0 
1.1184286287331586 -0.29139559302370754 2.8248633087708894 0 0 0 
1.1332063935135182 -0.29522035999290996 2.839137533427064 0 0 0 
1.1479841582938777 -0.2990451269621123 2.8534117580832383 0 0 0 
1.1627619230742374 -0.3028698939313146 2.8676859827394123 0 0 0 
1.0344980334031424 -0.38524687333481744 2.990883392535723 0 0 0 
1.0505562222003308 -0.3894030384253817 3.0063944118183534 0 0 0 
1.0666144109975193 -0.393559203515946 3.0219054311009836 0 0 0 
1.0826725997947075 -0.39771536860651036 3.0374164503836134 0 0 0 
1.098730788591896 -0.4018715336970746 3.0529274696662436 0 0 0 
1.1147889773890844 -0.406027698787639 3.068438488948874 0 0 0 
1.130847166186273 -0.4101838638782034 3.0839495082315036 0 0 0 
1.1469053549834614 -0.41434002896876754 3.099460527514134 0 0 0 
1.1629635437806496 -0.4184961940593319 3.114971546796764 0 0 0 
1.179021732577838 -0.4226523591498963 3.130482566079394 0 0 0 
1.1950799213750265 -0.42680852424046045 3.145993585362024 0 0 0 
1.211138110172215 -0.43096468933102483 3.161504604644654 0 0 0 
1.2271962989694032 -0.4351208544215892 3.177015623927284 0 0 0 
1.2432544877665916 -0.43927701951215337 3.192526643209914 0 0 0 
1.3844283947796303 -0.3602413984693493 3.0817993525820264 0 0 0 
1.3992061595599898 -0.36406616543855164 3.096073577238201 0 0 0 
1.4139839243403494 -0.36789093240775395 3.110347801894375 0 0 0 
1.3990836116260157 -0.3923175502381294 3.156422851263215 0 0 0 
1.3843874711517907 -0.4172039628483919 3.2035651539471734 0 0 0 
1.3699090285234852 -0.4425536709229232 3.25178777467822 0 0 0 
1.3556618093469106 -0.4683701751461036 3.301103778188325 0 0 0 
1.341659339227879 -0.49465697620231297 3.3515262292094565 0 0 0 
1.3279151437722014 -0.5214175747759333 3.4030681924735857 0 0 0 
1.3144427485856902 -0.5486554715513434 3.455742732712681 0 0 0 
1.2395634589381714 -0.6238914196992993 3.5856987455154457 0 0 0 
1.2883674614434109 -0.6045771624450593 3.5645418030436513 0 0 0 
1.2757916206992663 -0.6332679579321254 3.620692462599465 0 0 0 
1.9693618963186403 -0.09308410632306463 2.7519675678447038 0 0 0 
1.9795026325732656 -0.09570872199712332 2.7617627668906324 0 0 0 
1.989643368827891 -0.09833333767118202 2.7715579659365606 0 0 0 
1.6208726312653827 -0.4214376699765865 3.3101869470808145 0 0 0 
1.6356503960457422 -0.4252624369457887 3.324461171736989 0 0 0 
1.62545023135093 -0.4509055425984172 3.3750762154652665 0 0 0 
1.6652059256064613 -0.4329119708841933 3.3530096210493374 0 0 0 
1.6799836903868208 -0.43673673785339573 3.367283845705512 0 0 0 
1.6947614551671804 -0.4405615048225979 3.3815580703616863 0 0 0 
1.7095392199475399 -0.44438627179180035 3.3958322950178603 0 0 0 
1.7243169847278994 -0.44821103876100254 3.4101065196740343 0 0 0 
1.739094749508259 -0.45203580573020496 3.424380744330209 0 0 0 
1.7538725142886185 -0.45586057269940716 3.4386549689863832 0 0 0 
1.768650279068978 -0.4596853396686096 3.4529291936425572 0 0 0 
1.7834280438493375 -0.463510106637812 3.4672034182987317 0 0 0 
1.798205808629697 -0.4673348736070142 3.481477642954906 0 0 0 
1.8129835734100566 -0.4711596405762166 3.49575186761108 0 0 0 
1.827761338190416 -0.4749844075454188 3.510026092267254 0 0 0 
1.8216346351125225 -0.501681802644 3.5645757977737107 0 0 0 
2.0980404473737675 -0.2142900070163115 3.0641897278819035 0 0 0 
2.109155027246826 -0.21716667196577222 3.0749255876296435 0 0 0 
2.1202696071198845 -0.22004333691523292 3.085661447377383 0 0 0 
2.131384186992943 -0.22292000186469363 3.096397307125123 0 0 0 
2.1424987668660016 -0.22579666681415445 3.1071331668728632 0 0 0 
2.1536133467390606 -0.22867333176361515 3.1178690266206033 0 0 0 
1.788756661867834 -0.7025487060143623 3.9804527040872455 0 0 0 
1.8061674112461799 -0.707054939542985 3.997270196566836 0 0 0 
1.8235781606245256 -0.7115611730716078 4.014087689046427 0 0 0 
1.8409889100028713 -0.7160674066002306 4.030905181526017 0 0 0 
1.8583996593812169 -0.7205736401288532 4.047722674005607 0 0 0 
1.8758104087595626 -0.725079873657476 4.064540166485198 0 0 0 
1.8932211581379084 -0.7295861071860987 4.081357658964788 0 0 0 
1.9106319075162541 -0.7340923407147215 4.098175151444378 0 0 0 
1.9280426568945996 -0.7385985742433441 4.114992643923969 0 0 0 
1.9454534062729452 -0.7431048077719669 4.131810136403559 0 0 0 
1.9628641556512911 -0.7476110413005896 4.148627628883149 0 0 0 
1.9802749050296367 -0.7521172748292124 4.16544512136274 0 0 0 
2.298102885088822 -0.26606997610660454 3.257435203341223 0 0 0 
2.309217464961881 -0.26894664105606525 3.268171063088963 0 0 0 
2.3203320448349394 -0.27182330600552607 3.278906922836703 0 0 0 
2.331446624707998 -0.27469997095498677 3.289642782584443 0 0 0 
2.2968369280203342 -0.36015498114164624 3.4580612162035864 0 0 0 
2.2362026775982704 -0.4982892040688707 3.7283674202595294 0 0 0 
2.1989123346540467 -0.5993284565778132 3.9289980714437966 0 0 0 
2.226760987260123 -0.5782531157138815 3.89543015798396 0 0 0 
2.190687626800708 -0.6844907598554473 4.107676780885088 0 0 0 
2.140855182810353 -0.8252172204508752 4.387981709706301 0 0 0 
2.104203763721609 -0.9459554921739819 4.630991341562184 0 0 0 
1.1184286287331586 -0.27120879092258554 2.830272346091652 0 0 0 
1.1332063935135182 -0.27503355789178785 2.844546570747826 0 0 0 
1.1479841582938777 -0.27885832486099027 2.8588207954040006 0 0 0 
1.1627619230742374 -0.2826830918301926 2.873095020060175 0 0 0 
1.0344980334031424 -0.3633109794990914 2.996761097574261 0 0 0 
1.0505562222003308 -0.3674671445896557 3.012272116856891 0 0 0 
1.0666144109975193 -0.37162330968021995 3.0277831361395213 0 0 0 
1.118207908682279 -0.35591924469288194 3.0144212252691487 0 0 0 
1.236650746976035 -0.3018069266762041 2.944466143341046 0 0 0 
1.2514285117563946 -0.30563169364540643 2.958740367997221 0 0 0 
1.266206276536754 -0.30945646061460885 2.973014592653395 0 0 0 
1.2809840413171136 -0.31328122758381116 2.987288817309569 0 0 0 
1.2957618060974732 -0.31710599455301347 3.0015630419657433 0 0 0 
1.3105395708778327 -0.3209307615222158 3.0158372666219178 0 0 0 
1.3253173356581922 -0.3247555284914181 3.0301114912780918 0 0 0 
1.211138110172215 -0.4090287954952987 3.167382309683192 0 0 0 
1.2271962989694032 -0.41318496058586307 3.1828933289658217 0 0 0 
1.2432544877665916 -0.41734112567642745 3.198404348248452 0 0 0 
1.3844283947796303 -0.3400545963682273 3.0872083899027887 0 0 0 
1.3992061595599898 -0.34387936333742963 3.101482614558963 0 0 0 
1.4139839243403494 -0.34770413030663194 3.1157568392151376 0 0 0 
1.3990836116260157 -0.37170271336392635 3.161946580155757 0 0 0 
1.3843874711517907 -0.39615493242739463 3.2092052246499376 0 0 0 
1.3699090285234852 -0.42106428818141817 3.2575458374296495 0 0 0 
1.3556618093469106 -0.44643428131037743 3.3069814832268625 0 0 0 
1.341659339227879 -0.4722684124986525 3.3575252267735447 0 0 0 
1.3279151437722014 -0.49857018243062456 3.409190132801668 0 0 0 
1.1896516449093177 -0.6180919881892615 3.6134170700260007 0 0 0 
1.2395634589381714 -0.5991471250502656 3.5923289592839316 0 0 0 
1.2883674614434109 -0.580316331532527 3.571042473094373 0 0 0 
1.2757916206992663 -0.6085236632830917 3.6273226763679514 0 0 0 
1.9693618963186403 -0.07923160298616849 2.755679334926975 0 0 0 
1.9795026325732656 -0.08185621866022719 2.765474533972903 0 0 0 
1.989643368827891 -0.08448083433428588 2.7752697330188316 0 0 0 
1.6208726312653827 -0.4012508678754645 3.315595984401577 0 0 0 
1.6356503960457422 -0.4050756348446667 3.329870209057751 0 0 0 
1.6504281608261018 -0.4089004018138691 3.344144433713926 0 0 0 
1.6652059256064613 -0.4127251687830713 3.3584186583701 0 0 0 
1.6799836903868208 -0.4165499357522737 3.372692883026274 0 0 0 
1.6947614551671804 -0.4203747027214759 3.3869671076824486 0 0 0 
1.7095392199475399 -0.42419946969067834 3.401241332338623 0 0 0 
1.7243169847278994 -0.42802423665988054 3.415515556994797 0 0 0 
1.739094749508259 -0.43184900362908296 3.4297897816509715 0 0 0 
1.7538725142886185 -0.43567377059828516 3.444064006307146 0 0 0 
1.768650279068978 -0.4394985375674876 3.45833823096332 0 0 0 
1.7834280438493375 -0.44332330453669 3.4726124556194944 0 0 0 
1.798205808629697 -0.4471480715058922 3.486886680275669 0 0 0 
1.8129835734100566 -0.4509728384750946 3.501160904931843 0 0 0 
1.827761338190416 -0.4547976054442968 3.515435129588017 0 0 0 
1.8216346351125225 -0.481066965769797 3.5700995266662527 0 0 0 
2.0980404473737675 -0.19910720855732222 3.068257946467834 0 0 0 
2.109155027246826 -0.20198387350678293 3.078993806215574 0 0 0 
2.1202696071198845 -0.20486053845624363 3.089729665963314 0 0 0 
2.131384186992943 -0.20773720340570434 3.100465525711054 0 0 0 
2.1424987668660016 -0.21061386835516516 3.111201385458794 0 0 0 
2.1536133467390606 -0.21349053330462586 3.121937245206534 0 0 0 
1.788756661867834 -0.678765180064618 3.986825480658644 0 0 0 
1.8061674112461799 -0.6832714135932407 4.003642973138234 0 0 0 
1.8235781606245256 -0.6877776471218635 4.020460465617825 0 0 0 
1.8409889100028713 -0.6922838806504863 4.037277958097416 0 0 0 
1.8583996593812169 -0.6967901141791089 4.054095450577005 0 0 0 
1.8758104087595626 -0.7012963477077316 4.070912943056596 0 0 0 
1.8932211581379084 -0.7058025812363544 4.087730435536187 0 0 0 
1.9106319075162541 -0.7103088147649772 4.104547928015777 0 0 0 
1.9280426568945996 -0.7148150482935998 4.121365420495367 0 0 0 
1.9454534062729452 -0.7193212818222225 4.138182912974958 0 0 0 
1.9628641556512911 -0.7238275153508453 4.155000405454548 0 0 0 
1.9802749050296367 -0.7283337488794681 4.1718178979341385 0 0 0 
2.298102885088822 -0.25088717764761526 3.2615034219271535 0 0 0 
2.309217464961881 -0.25376384259707596 3.2722392816748935 0 0 0 
2.3203320448349394 -0.2566405075465368 3.2829751414226336 0 0 0 
2.331446624707998 -0.2595171724959975 3.2937110011703736 0 0 0 
2.2968369280203342 -0.3435433471811494 3.4625122901082626 0 0 0 
2.2362026775982704 -0.479349553644711 3.7334422842956108 0 0 0 
2.1989123346540467 -0.57871361970361 3.9345218003363387 0 0 0 
2.226760987260123 -0.5580663136127595 3.900839195304722 0 0 0 
2.190687626800708 -0.6625548660197211 4.1135544859236255 0 0 0 
2.140855182810353 -0.8009563895383429 4.394482379757021 0 0 0 
2.104203763721609 -0.9197238536731636 4.638020087914623 0 0 0 
1.1184286287331586 -0.2510219888214633 2.835681383412415 0 0 0 
1.1332063935135182 -0.2548467557906656 2.849955608068589 0 0 0 
1.1479841582938777 -0.25867152275986804 2.8642298327247633 0 0 0 
1.1627619230742374 -0.26249628972907035 2.8785040573809377 0 0 0 
1.0344980334031424 -0.3413750856633653 3.0026388026127986 0 0 0 
1.0505562222003308 -0.34553125075392965 3.018149821895429 0 0 0 
1.1024765886922034 -0.3303582967333435 3.0049839997605465 0 0 0 
1.2218729821956755 -0.2777953576058796 2.9356009560056346 0 0 0 
1.236650746976035 -0.2816201245750819 2.9498751806618086 0 0 0 
1.2514285117563946 -0.2854448915442842 2.964149405317983 0 0 0 
1.266206276536754 -0.2892696585134865 2.9784236299741575 0 0 0 
1.2809840413171136 -0.2930944254826888 2.9926978546303316 0 0 0 
1.2957618060974732 -0.29691919245189113 3.006972079286506 0 0 0 
1.3105395708778327 -0.30074395942109355 3.0212463039426805 0 0 0 
1.3253173356581922 -0.30456872639029586 3.0355205285988545 0 0 0 
1.3400951004385517 -0.30839349335949817 3.0497947532550285 0 0 0 
1.2271962989694032 -0.39124906675013693 3.1887710340043594 0 0 0 
1.2432544877665916 -0.3954052318407012 3.2042820532869896 0 0 0 
1.3844283947796303 -0.3198677942671051 3.0926174272235514 0 0 0 
1.3992061595599898 -0.3236925612363074 3.106891651879726 0 0 0 
1.4139839243403494 -0.3275173282055097 3.1211658765359003 0 0 0 
1.3990836116260157 -0.3510878764897234 3.167470309048299 0 0 0 
1.3843874711517907 -0.3751059020063975 3.214845295352702 0 0 0 
1.3699090285234852 -0.39957490543991314 3.263303900181079 0 0 0 
1.3556618093469106 -0.4244983874746515 3.3128591882654 0 0 0 
1.341659339227879 -0.449879848794992 3.3635242243376338 0 0 0 
1.3279151437722014 -0.47572279008531626 3.4153120731297504 0 0 0 
1.1896516449093177 -0.5928580710300131 3.620178477750695 0 0 0 
1.3012556792741556 -0.528807115313437 3.522308467801511 0 0 0 
1.2883674614434109 -0.5560555006199945 3.5775431431450935 0 0 0 
1.2757916206992663 -0.5837793686340578 3.6339528901364377 0 0 0 
1.9693618963186403 -0.06537909964927235 2.7593911020092454 0 0 0 
1.9795026325732656 -0.06800371532333105 2.769186301055174 0 0 0 
1.989643368827891 -0.07062833099738974 2.7789815001011027 0 0 0 
1.6208726312653827 -0.38106406577434226 3.32100502172234 0 0 0 
1.6356503960457422 -0.3848888327435446 3.335279246378514 0 0 0 
1.6504281608261018 -0.3887135997127469 3.3495534710346884 0 0 0 
1.6652059256064613 -0.3925383666819492 3.363827695690863 0 0 0 
1.6799836903868208 -0.3963631336511515 3.378101920347037 0 0 0 
1.6947614551671804 -0.4001879006203537 3.3923761450032113 0 0 0 
1.7095392199475399 -0.4040126675895561 3.4066503696593857 0 0 0 
1.7243169847278994 -0.4078374345587583 3.4209245943155597 0 0 0 
1.739094749508259 -0.41166220152796074 3.4351988189717337 0 0 0 
1.7538725142886185 -0.41548696849716293 3.449473043627908 0 0 0 
1.768650279068978 -0.41931173546636535 3.4637472682840826 0 0 0 
1.7834280438493375 -0.4231365024355678 3.4780214929402566 0 0 0 
1.798205808629697 -0.42696126940476997 3.492295717596431 0 0 0 
1.8129835734100566 -0.4307860363739724 3.5065699422526055 0 0 0 
1.827761338190416 -0.4346108033431746 3.5208441669087795 0 0 0 
1.8216346351125225 -0.46045212889559406 3.575623255558795 0 0 0 
2.0980404473737675 -0.18392441009833294 3.0723261650537648 0 0 0 
2.005869636810854 -0.29976913207900335 3.292457846205606 0 0 0 
1.9450421634486248 -0.3850520169767807 3.4572776881189453 0 0 0 
1.958906949836703 -0.3886404877502936 3.4706700433671713 0 0 0 
1.9727717362247814 -0.39222895852380646 3.4840623986153973 0 0 0 
2.004566001269034 -0.37460942112258977 3.457569625175655 0 0 0 
1.788756661867834 -0.6549816541148736 3.993198257230043 0 0 0 
1.8061674112461799 -0.6594878876434964 4.010015749709634 0 0 0 
1.8235781606245256 -0.6639941211721192 4.026833242189223 0 0 0 
1.8409889100028713 -0.668500354700742 4.043650734668814 0 0 0 
1.8583996593812169 -0.6730065882293645 4.060468227148405 0 0 0 
1.8758104087595626 -0.6775128217579873 4.077285719627995 0 0 0 
1.8932211581379084 -0.6820190552866101 4.094103212107585 0 0 0 
1.9106319075162541 -0.6865252888152329 4.110920704587176 0 0 0 
1.9280426568945996 -0.6910315223438557 4.127738197066766 0 0 0 
1.9454534062729452 -0.6955377558724782 4.1445556895463564 0 0 0 
1.9628641556512911 -0.700043989401101 4.161373182025947 0 0 0 
1.9802749050296367 -0.7045502229297238 4.1781906745055375 0 0 0 
2.298102885088822 -0.23570437918862597 3.2655716405130844 0 0 0 
2.309217464961881 -0.23858104413808667 3.2763075002608244 0 0 0 
2.3203320448349394 -0.2414577090875475 3.2870433600085645 0 0 0 
2.331446624707998 -0.2443343740370082 3.2977792197563045 0 0 0 
2.2968369280203342 -0.32693171322065273 3.466963364012939 0 0 0 
2.2362026775982704 -0.4604099032205511 3.738517148331692 0 0 0 
2.1989123346540467 -0.5580987828294071 3.9400455292288807 0 0 0 
2.226760987260123 -0.5378795115116373 3.906248232625485 0 0 0 
2.190687626800708 -0.6406189721839952 4.119432190962163 0 0 0 
2.140855182810353 -0.7766955586258104 4.400983049807742 0 0 0 
2.104203763721609 -0.8934922151723448 4.645048834267063 0 0 0 
1.1184286287331586 -0.23083518672034142 2.8410904207331775 0 0 0 
1.1332063935135182 -0.23465995368954373 2.8553646453893515 0 0 0 
1.1479841582938777 -0.23848472065874604 2.8696388700455255 0 0 0 
1.1627619230742374 -0.24230948762794835 2.8839130947017 0 0 0 
1.0344980334031424 -0.31943919182763925 3.0085165076513363 0 0 0 
1.0505562222003308 -0.3235953569182036 3.024027526933966 0 0 0 
1.1024765886922034 -0.30886891399183847 3.0107420625119765 0 0 0 
1.2218729821956755 -0.2576085555047576 2.9410099933263973 0 0 0 
1.236650746976035 -0.2614333224739599 2.9552842179825713 0 0 0 
1.2514285117563946 -0.2652580894431623 2.9695584426387454 0 0 0 
1.266206276536754 -0.2690828564123646 2.9838326672949202 0 0 0 
1.2809840413171136 -0.27290762338156693 2.9981068919510943 0 0 0 
1.2957618060974732 -0.27673239035076924 3.0123811166072683 0 0 0 
1.3105395708778327 -0.28055715731997155 3.0266553412634427 0 0 0 
1.3253173356581922 -0.28438192428917386 3.040929565919617 0 0 0 
1.3400951004385517 -0.28820669125837617 3.055203790575791 0 0 0 
1.2271962989694032 -0.3693131729144109 3.194648739042897 0 0 0 
1.2432544877665916 -0.37346933800497517 3.2101597583255272 0 0 0 
1.3844283947796303 -0.2996809921659831 3.098026464544314 0 0 0 
1.3992061595599898 -0.3035057591351855 3.112300689200488 0 0 0 
1.4139839243403494 -0.3073305261043878 3.1265749138566625 0 0 0 
1.3990836116260157 -0.3304730396155203 3.1729940379408412 0 0 0 
1.3843874711517907 -0.3540568715854001 3.2204853660554664 0 0 0 
1.3699090285234852 -0.3780855226984082 3.2690619629325086 0 0 0 
1.3556618093469106 -0.4025624936389254 3.318736893303938 0 0 0 
1.341659339227879 -0.4274912850913315 3.369523221901722 0 0 0 
1.3279151437722014 -0.45287539774000796 3.421434013457833 0 0 0 
1.1896516449093177 -0.5676241538707645 3.6269398854753896 0 0 0 
1.3012556792741556 -0.5050235893636927 3.52868124437291 0 0 0 
1.2883674614434109 -0.5317946697074623 3.584043813195815 0 0 0 
1.2757916206992663 -0.5590350739850241 3.640583103904924 0 0 0 
1.9693618963186403 -0.05152659631237633 2.763102869091516 0 0 0 
1.9795026325732656 -0.05415121198643491 2.7728980681374447 0 0 0 
1.989643368827891 -0.056775827660493605 2.7826932671833733 0 0 0 
1.6208726312653827 -0.36087726367322026 3.3264140590431026 0 0 0 
1.6356503960457422 -0.36470203064242257 3.3406882836992766 0 0 0 
1.6504281608261018 -0.3685267976116249 3.354962508355451 0 0 0 
1.6652059256064613 -0.3723515645808272 3.3692367330116255 0 0 0 
1.6799836903868208 -0.3761763315500295 3.3835109576677995 0 0 0 
1.6947614551671804 -0.3800010985192318 3.3977851823239735 0 0 0 
1.7095392199475399 -0.3838258654884341 3.412059406980148 0 0 0 
1.7243169847278994 -0.38765063245763653 3.4263336316363224 0 0 0 
1.739094749508259 -0.39147539942683884 3.4406078562924964 0 0 0 
1.7538725142886185 -0.39530016639604115 3.454882080948671 0 0 0 
1.768650279068978 -0.39912493336524346 3.4691563056048453 0 0 0 
1.7834280438493375 -0.40294970033444577 3.4834305302610193 0 0 0 
1.798205808629697 -0.40677446730364797 3.4977047549171933 0 0 0 
1.8129835734100566 -0.4105992342728504 3.511978979573368 0 0 0 
1.827761338190416 -0.4144240012420526 3.5262532042295422 0 0 0 
1.8216346351125225 -0.4398372920213909 3.581146984451337 0 0 0 
2.0980404473737675 -0.16874161163934365 3.0763943836396956 0 0 0 
1.9117748955238456 -0.3833357378711657 3.4884055934789933 0 0 0 
1.9065495774618233 -0.40820537467052875 3.542420067185617 0 0 0 
1.921018507576152 -0.4119502093463743 3.5563959804618186 0 0 0 
1.9354874376904805 -0.41569504402222 3.57037189373802 0 0 0 
1.949956367804809 -0.41943987869806576 3.584347807014222 0 0 0 
1.788756661867834 -0.6311981281651293 3.9995710338014416 0 0 0 
1.8061674112461799 -0.6357043616937521 4.016388526281032 0 0 0 
1.8235781606245256 -0.6402105952223747 4.033206018760622 0 0 0 
1.8409889100028713 -0.6447168287509975 4.050023511240212 0 0 0 
1.8583996593812169 -0.6492230622796202 4.066841003719803 0 0 0 
1.8758104087595626 -0.653729295808243 4.083658496199394 0 0 0 
1.8932211581379084 -0.6582355293368658 4.100475988678984 0 0 0 
1.9106319075162541 -0.6627417628654884 4.117293481158574 0 0 0 
1.9280426568945996 -0.6672479963941111 4.134110973638165 0 0 0 
1.9454534062729452 -0.6717542299227339 4.1509284661177555 0 0 0 
1.9628641556512911 -0.6762604634513567 4.1677459585973455 0 0 0 
1.9802749050296367 -0.6807666969799795 4.1845634510769365 0 0 0 
2.2981028850888223 -0.2205215807296368 3.269639859099015 0 0 0 
2.309217464961881 -0.2233982456790975 3.280375718846755 0 0 0 
2.3203320448349394 -0.2262749106285582 3.291111578594495 0 0 0 
2.3314466247079983 -0.2291515755780189 3.301847438342235 0 0 0 
2.2968369280203342 -0.3103200792601559 3.4714144379176157 0 0 0 
2.2362026775982704 -0.4414702527963914 3.7435920123677735 0 0 0 
2.1989123346540467 -0.5374839459552041 3.945569258121423 0 0 0 
2.226760987260123 -0.5176927094105153 3.9116572699462475 0 0 0 
2.190687626800708 -0.6186830783482691 4.125309896000701 0 0 0 
2.140855182810353 -0.7524347277132781 4.4074837198584635 0 0 0 
2.104203763721609 -0.8672605766715265 4.652077580619502 0 0 0 
1.1184286287331586 -0.2106483846192192 2.84649945805394 0 0 0 
1.1332063935135182 -0.2144731515884215 2.8607736827101142 0 0 0 
1.1479841582938777 -0.21829791855762382 2.8750479073662882 0 0 0 
1.1627619230742374 -0.22212268552682612 2.8893221320224627 0 0 0 
1.0344980334031424 -0.2975032979919132 3.014394212689874 0 0 0 
1.0505562222003308 -0.3016594630824775 3.0299052319725037 0 0 0 
1.1024765886922034 -0.28737953125033366 3.0165001252634056 0 0 0 
1.2218729821956755 -0.23742175340363547 2.9464190306471596 0 0 0 
1.236650746976035 -0.24124652037283778 2.960693255303334 0 0 0 
1.2514285117563946 -0.2450712873420401 2.974967479959508 0 0 0 
1.266206276536754 -0.2488960543112424 2.9892417046156825 0 0 0 
1.2809840413171136 -0.2527208212804447 3.003515929271857 0 0 0 
1.2957618060974732 -0.256545588249647 3.017790153928031 0 0 0 
1.3105395708778327 -0.2603703552188493 3.0320643785842054 0 0 0 
1.3253173356581922 -0.26419512218805163 3.04633860324038 0 0 0 
1.3400951004385517 -0.26801988915725405 3.060612827896554 0 0 0 
1.2271962989694034 -0.3473772790786849 3.2005264440814347 0 0 0 
1.2432544877665916 -0.35153344416924914 3.216037463364065 0 0 0 
1.3844283947796303 -0.279494190064861 3.1034355018650768 0 0 0 
1.3992061595599898 -0.2833189570340633 3.117709726521251 0 0 0 
1.4139839243403494 -0.2871437240032656 3.1319839511774252 0 0 0 
1.3990836116260157 -0.30985820274131737 3.1785177668333833 0 0 0 
1.3843874711517907 -0.33300784116440296 3.2261254367582306 0 0 0 
1.3699090285234852 -0.3565961399569033 3.274820025683938 0 0 0 
1.3556618093469106 -0.38062659980319924 3.3246145983424755 0 0 0 
1.341659339227879 -0.405102721387671 3.3755222194658105 0 0 0 
1.3279151437722014 -0.43002800539469965 3.4275559537859155 0 0 0 
1.1896516449093177 -0.5423902367115156 3.633701293200084 0 0 0 
1.3012556792741556 -0.4812400634139484 3.535054020944308 0 0 0 
1.2883674614434109 -0.50753383879493 3.5905444832465356 0 0 0 
1.2757916206992663 -0.5342907793359903 3.6472133176734105 0 0 0 
1.9693618963186403 -0.03767409297548019 2.7668146361737866 0 0 0 
1.9795026325732656 -0.04029870864953877 2.7766098352197153 0 0 0 
1.989643368827891 -0.04292332432359747 2.786405034265644 0 0 0 
1.6208726312653827 -0.34069046157209815 3.3318230963638653 0 0 0 
1.6356503960457422 -0.34451522854130046 3.3460973210200393 0 0 0 
1.6504281608261018 -0.34833999551050276 3.3603715456762133 0 0 0 
1.6652059256064613 -0.3521647624797051 3.3746457703323878 0 0 0 
1.6799836903868208 -0.3559895294489074 3.3889199949885622 0 0 0 
1.6947614551671804 -0.3598142964181097 3.4031942196447362 0 0 0 
1.7095392199475399 -0.363639063387312 3.4174684443009107 0 0 0 
1.7243169847278994 -0.3674638303565143 3.431742668957085 0 0 0 
1.739094749508259 -0.3712885973257166 3.446016893613259 0 0 0 
1.7538725142886185 -0.3751133642949189 3.460291118269433 0 0 0 
1.768650279068978 -0.37893813126412124 3.474565342925608 0 0 0 
1.7834280438493375 -0.38276289823332366 3.488839567581782 0 0 0 
1.798205808629697 -0.38658766520252597 3.503113792237956 0 0 0 
1.8129835734100566 -0.3904124321717283 3.5173880168941305 0 0 0 
1.827761338190416 -0.3942371991409306 3.531662241550305 0 0 0 
1.8216346351125225 -0.4192224551471879 3.586670713343879 0 0 0 
2.0980404473737675 -0.15355881318035436 3.080462602225626 0 0 0 
1.9117748955238456 -0.36398652899506523 3.4935901983715256 0 0 0 
1.9065495774618233 -0.38844044856877424 3.547716063173043 0 0 0 
1.921018507576152 -0.3921852832446199 3.5616919764492447 0 0 0 
1.9354874376904805 -0.3959301179204656 3.5756678897254464 0 0 0 
1.949956367804809 -0.39967495259631125 3.589643803001648 0 0 0 
1.788756661867834 -0.607414602215385 4.00594381037284 0 0 0 
1.8061674112461799 -0.6119208357440078 4.02276130285243 0 0 0 
1.8235781606245256 -0.6164270692726306 4.039578795332021 0 0 0 
1.8409889100028713 -0.6209333028012534 4.056396287811611 0 0 0 
1.8583996593812169 -0.6254395363298761 4.073213780291201 0 0 0 
1.8758104087595626 -0.6299457698584987 4.090031272770792 0 0 0 
1.8932211581379084 -0.6344520033871215 4.106848765250383 0 0 0 
1.9106319075162541 -0.6389582369157443 4.1236662577299725 0 0 0 
1.9280426568945996 -0.643464470444367 4.1404837502095635 0 0 0 
1.9454534062729452 -0.6479707039729898 4.1573012426891545 0 0 0 
1.9628641556512911 -0.6524769375016124 4.1741187351687445 0 0 0 
1.9802749050296367 -0.6569831710302352 4.190936227648335 0 0 0 
2.2981028850888223 -0.2053387822706475 3.2737080776849456 0 0 0 
2.309217464961881 -0.2082154472201082 3.2844439374326857 0 0 0 
2.3203320448349394 -0.2110921121695689 3.2951797971804258 0 0 0 
2.3314466247079983 -0.21396877711902962 3.305915656928166 0 0 0 
2.2968369280203342 -0.2937084452996592 3.475865511822292 0 0 0 
2.2362026775982704 -0.4225306023722317 3.748666876403855 0 0 0 
2.1989123346540467 -0.5168691090810011 3.951092987013965 0 0 0 
2.226760987260123 -0.49750590730939304 3.9170663072670098 0 0 0 
2.190687626800708 -0.5967471845125429 4.1311876010392385 0 0 0 
2.140855182810353 -0.7281738968007458 4.413984389909185 0 0 0 
2.104203763721609 -0.8410289381707079 4.6591063269719415 0 0 0 
1.1184286287331588 -0.1904615825180972 2.851908495374702 0 0 0 
1.1332063935135184 -0.1942863494872995 2.8661827200308765 0 0 0 
1.147984158293878 -0.1981111164565018 2.880456944687051 0 0 0 
1.1627619230742374 -0.20193588342570412 2.894731169343225 0 0 0 
1.0344980334031424 -0.2755674041561872 3.0202719177284116 0 0 0 
1.0505562222003308 -0.27972356924675157 3.0357829370110414 0 0 0 
1.0666144109975193 -0.28387973433731584 3.0512939562936716 0 0 0 
1.2218729821956755 -0.21723495130251347 2.9518280679679223 0 0 0 
1.236650746976035 -0.22105971827171578 2.9661022926240967 0 0 0 
1.2514285117563946 -0.22488448524091809 2.9803765172802708 0 0 0 
1.266206276536754 -0.2287092522101204 2.9946507419364448 0 0 0 
1.2809840413171136 -0.2325340191793227 3.008924966592619 0 0 0 
1.2957618060974732 -0.236358786148525 3.0231991912487937 0 0 0 
1.3105395708778327 -0.24018355311772732 3.0374734159049677 0 0 0 
1.3253173356581922 -0.24400832008692963 3.051747640561142 0 0 0 
1.3400951004385517 -0.24783308705613194 3.0660218652173166 0 0 0 
1.2271962989694034 -0.32544138524295885 3.2064041491199724 0 0 0 
1.2432544877665916 -0.3295975503335231 3.221915168402602 0 0 0 
1.3844283947796303 -0.259307387963739 3.1088445391858395 0 0 0 
1.3992061595599898 -0.2631321549329413 3.1231187638420135 0 0 0 
1.4139839243403494 -0.2669569219021436 3.1373929884981875 0 0 0 
1.3990836116260157 -0.2892433658671144 3.1840414957259253 0 0 0 
1.3843874711517907 -0.3119588107434056 3.2317655074609952 0 0 0 
1.3699090285234852 -0.3351067572153984 3.2805780884353677 0 0 0 
1.3556618093469106 -0.3586907059674732 3.330492303381013 0 0 0 
1.341659339227879 -0.3827141576840104 3.381521217029899 0 0 0 
1.3279151437722014 -0.4071806130493911 3.433677894113998 0 0 0 
1.1896516449093177 -0.517156319552267 3.6404627009247785 0 0 0 
1.3012556792741556 -0.4574565374642041 3.541426797515707 0 0 0 
1.2883674614434109 -0.48327300788239747 3.597045153297257 0 0 0 
1.2757916206992663 -0.5095464846869564 3.653843531441897 0 0 0 
1.9693618963186403 -0.02382158963858405 2.7705264032560573 0 0 0 
1.9795026325732656 -0.026446205312642634 2.780321602301986 0 0 0 
1.989643368827891 -0.02907082098670133 2.7901168013479145 0 0 0 
1.6208726312653827 -0.32050365947097603 3.3372321336846276 0 0 0 
1.6356503960457422 -0.32432842644017834 3.351506358340802 0 0 0 
1.6504281608261018 -0.32815319340938076 3.365780582996976 0 0 0 
1.6652059256064613 -0.33197796037858307 3.38005480765315 0 0 0 
1.6799836903868208 -0.3358027273477854 3.394329032309325 0 0 0 
1.6947614551671804 -0.3396274943169877 3.408603256965499 0 0 0 
1.7095392199475399 -0.34345226128619 3.422877481621673 0 0 0 
1.7243169847278994 -0.3472770282553923 3.4371517062778474 0 0 0 
1.739094749508259 -0.3511017952245946 3.451425930934022 0 0 0 
1.7538725142886185 -0.3549265621937969 3.465700155590196 0 0 0 
1.768650279068978 -0.35875132916299923 3.4799743802463703 0 0 0 
1.7834280438493375 -0.36257609613220154 3.4942486049025447 0 0 0 
1.798205808629697 -0.36640086310140385 3.5085228295587187 0 0 0 
1.8129835734100566 -0.37022563007060616 3.5227970542148928 0 0 0 
1.827761338190416 -0.37405039703980847 3.537071278871067 0 0 0 
1.8216346351125225 -0.3986076182729851 3.592194442236421 0 0 0 
2.081300899990778 -0.15529638551337988 3.1179850032934153 0 0 0 
1.9117748955238456 -0.34463732011896475 3.498774803264058 0 0 0 
1.9065495774618233 -0.3686755224670196 3.5530120591604692 0 0 0 
1.921018507576152 -0.37242035714286525 3.566987972436671 0 0 0 
1.9354874376904805 -0.3761651918187109 3.5809638857128725 0 0 0 
1.949956367804809 -0.37991002649455663 3.594939798989074 0 0 0 
1.9644252979191377 -0.38365486117040215 3.6089157122652757 0 0 0 
1.9788942280334663 -0.3873996958462479 3.6228916255414774 0 0 0 
1.993363158147795 -0.3911445305220935 3.636867538817679 0 0 0 
2.183624709033367 -0.18177973606103548 3.2168222130919233 0 0 0 
2.1949940211492103 -0.18472233056633058 3.2278041252917573 0 0 0 
2.2063633332650534 -0.18766492507162558 3.2387860374915913 0 0 0 
2.217732645380897 -0.19060751957692068 3.2497679496914254 0 0 0 
2.22910195749674 -0.19355011408221579 3.26074986189126 0 0 0 
2.2404712696125832 -0.19649270858751078 3.271731774091094 0 0 0 
2.2518405817284264 -0.19943530309280588 3.2827136862909283 0 0 0 
2.2632098938442695 -0.202377897598101 3.2936955984907623 0 0 0 
2.274579205960113 -0.20532049210339598 3.3046775106905963 0 0 0 
2.2859485180759562 -0.20826308660869108 3.315659422890431 0 0 0 
2.2973178301917994 -0.21120568111398608 3.326641335090265 0 0 0 
2.3086871423076425 -0.21414827561928118 3.3376232472900993 0 0 0 
2.3084646882047344 -0.23571974196901546 3.387910006014015 0 0 0 
2.2727922653461614 -0.316764778852174 3.5642425157129436 0 0 0 
2.2233961831623468 -0.4252908442191796 3.7997778530155406 0 0 0 
2.1989123346540467 -0.4962542722067982 3.956616715906507 0 0 0 
2.226760987260123 -0.47731910520827103 3.9224753445877725 0 0 0 
2.190687626800708 -0.574811290676817 4.137065306077776 0 0 0 
2.140855182810353 -0.7039130658882133 4.420485059959906 0 0 0 
2.104203763721609 -0.8147972996698893 4.666135073324381 0 0 0 
1.1184286287331588 -0.17027478041697508 2.8573175326954647 0 0 0 
1.1332063935135184 -0.1740995473861775 2.871591757351639 0 0 0 
1.147984158293878 -0.1779243143553798 2.8858659820078136 0 0 0 
1.1627619230742374 -0.18174908132458212 2.9001402066639876 0 0 0 
1.0344980334031424 -0.2536315103204613 3.0261496227669493 0 0 0 
1.0505562222003308 -0.25778767541102554 3.041660642049579 0 0 0 
1.0666144109975193 -0.2619438405015898 3.0571716613322093 0 0 0 
1.0826725997947078 -0.2661000055921541 3.0726826806148395 0 0 0 
1.098730788591896 -0.27025617068271846 3.0881936998974693 0 0 0 
1.1147889773890844 -0.2744123357732827 3.1037047191800995 0 0 0 
1.130847166186273 -0.278568500863847 3.1192157384627297 0 0 0 
1.1469053549834614 -0.28272466595441137 3.1347267577453595 0 0 0 
1.1629635437806496 -0.28688083104497564 3.1502377770279897 0 0 0 
1.179021732577838 -0.2910369961355399 3.16574879631062 0 0 0 
1.1950799213750265 -0.2951931612261043 3.1812598155932497 0 0 0 
1.211138110172215 -0.29934932631666855 3.19677083487588 0 0 0 
1.2271962989694034 -0.3035054914072328 3.21228185415851 0 0 0 
1.2432544877665916 -0.3076616564977972 3.22779287344114 0 0 0 
1.3844283947796303 -0.23912058586261686 3.1142535765066017 0 0 0 
1.3992061595599898 -0.24294535283181917 3.128527801162776 0 0 0 
1.4139839243403494 -0.24677011980102148 3.14280202581895 0 0 0 
1.3990836116260157 -0.26862852899291145 3.189565224618467 0 0 0 
1.3843874711517907 -0.2909097803224082 3.2374055781637594 0 0 0 
1.3699090285234852 -0.3136173744738934 3.2863361511867972 0 0 0 
1.3556618093469106 -0.3367548121317473 3.336370008419551 0 0 0 
1.341659339227879 -0.3603255939803499 3.3875202145939878 0 0 0 
1.3279151437722014 -0.38433322070408293 3.4397998344420806 0 0 0 
1.1896516449093177 -0.49192240239301843 3.6472241086494734 0 0 0 
1.3012556792741556 -0.4336730115144598 3.547799574087106 0 0 0 
1.2883674614434109 -0.4590121769698652 3.603545823347978 0 0 0 
1.2757916206992663 -0.4848021900379227 3.6604737452103833 0 0 0 
1.9693618963186403 -0.009969086301687913 2.7742381703383283 0 0 0 
1.9795026325732656 -0.012593701975746607 2.7840333693842565 0 0 0 
1.989643368827891 -0.01521831764980519 2.793828568430185 0 0 0 
1.6208726312653827 -0.30031685736985403 3.34264117100539 0 0 0 
1.6356503960457422 -0.30414162433905634 3.3569153956615643 0 0 0 
1.6504281608261018 -0.30796639130825865 3.3711896203177387 0 0 0 
1.6652059256064613 -0.31179115827746096 3.3854638449739127 0 0 0 
1.6799836903868208 -0.31561592524666326 3.399738069630087 0 0 0 
1.6947614551671804 -0.3194406922158656 3.4140122942862616 0 0 0 
1.7095392199475399 -0.3232654591850679 3.4282865189424356 0 0 0 
1.7243169847278994 -0.3270902261542702 3.4425607435986096 0 0 0 
1.739094749508259 -0.3309149931234725 3.456834968254784 0 0 0 
1.7538725142886185 -0.3347397600926748 3.4711091929109585 0 0 0 
1.768650279068978 -0.33856452706187723 3.4853834175671325 0 0 0 
1.7834280438493375 -0.34238929403107954 3.499657642223307 0 0 0 
1.798205808629697 -0.34621406100028185 3.5139318668794814 0 0 0 
1.8129835734100566 -0.35003882796948416 3.5282060915356555 0 0 0 
1.827761338190416 -0.35386359493868647 3.5424803161918295 0 0 0 
1.8216346351125225 -0.3779927813987821 3.597718171128963 0 0 0 
1.857316867751135 -0.3615131288770911 3.5710287655041784 0 0 0 
1.8720946325314947 -0.3653378958462934 3.5853029901603524 0 0 0 
1.8868723973118544 -0.3691626628154958 3.5995772148165273 0 0 0 
1.9016501620922137 -0.3729874297846981 3.6138514394727013 0 0 0 
1.9164279268725732 -0.37681219675390043 3.6281256641288753 0 0 0 
1.9312056916529325 -0.38063696372310274 3.6423998887850497 0 0 0 
1.9459834564332923 -0.38446173069230505 3.656674113441224 0 0 0 
1.9607612212136518 -0.38828649766150736 3.670948338097398 0 0 0 
1.9755389859940113 -0.39211126463070967 3.6852225627535726 0 0 0 
1.9903167507743709 -0.395936031599912 3.6994967874097466 0 0 0 
2.0050945155547306 -0.3997607985691143 3.713771012065921 0 0 0 
2.0198722803350897 -0.4035855655383165 3.7280452367220955 0 0 0 
2.0346500451154492 -0.4074103325075189 3.7423194613782695 0 0 0 
2.190687626800708 -0.5528753968410911 4.142943011116314 0 0 0 
2.140855182810353 -0.6796522349756811 4.426985730010626 0 0 0 
2.104203763721609 -0.788565661169071 4.67316381967682 0 0 0 
1.1184286287331588 -0.15008797831585297 2.8627265700162274 0 0 0 
1.1332063935135184 -0.15391274528505527 2.8770007946724014 0 0 0 
1.147984158293878 -0.1577375122542577 2.891275019328576 0 0 0 
1.1627619230742374 -0.16156227922346 2.9055492439847503 0 0 0 
1.0344980334031424 -0.23169561648473513 3.032027327805487 0 0 0 
1.0505562222003308 -0.2358517815752995 3.0475383470881168 0 0 0 
1.0666144109975193 -0.24000794666586378 3.063049366370747 0 0 0 
1.0826725997947078 -0.24416411175642805 3.078560385653377 0 0 0 
1.098730788591896 -0.24832027684699243 3.094071404936007 0 0 0 
1.1147889773890844 -0.2524764419375567 3.109582424218637 0 0 0 
1.130847166186273 -0.25663260702812096 3.1250934435012674 0 0 0 
1.1469053549834614 -0.26078877211868534 3.140604462783897 0 0 0 
1.1629635437806496 -0.2649449372092496 3.1561154820665274 0 0 0 
1.179021732577838 -0.2691011022998139 3.1716265013491576 0 0 0 
1.1950799213750265 -0.27325726739037814 3.1871375206317873 0 0 0 
1.211138110172215 -0.2774134324809425 3.2026485399144176 0 0 0 
1.2271962989694034 -0.2815695975715068 3.2181595591970478 0 0 0 
1.2432544877665916 -0.28572576266207106 3.2336705784796775 0 0 0 
1.3844283947796303 -0.21893378376149475 3.119662613827364 0 0 0 
1.3992061595599898 -0.22275855073069706 3.133936838483539 0 0 0 
1.4139839243403494 -0.22658331769989937 3.148211063139713 0 0 0 
1.3990836116260157 -0.2480136921187085 3.195088953511009 0 0 0 
1.3843874711517907 -0.26986074990141107 3.2430456488665236 0 0 0 
1.3699090285234852 -0.29212799173238857 3.2920942139382268 0 0 0 
1.3556618093469106 -0.31481891829602127 3.342247713458088 0 0 0 
1.3416593392278793 -0.3379370302766894 3.3935192121580764 0 0 0 
1.3279151437722014 -0.3614858283587745 3.445921774770163 0 0 0 
1.1896516449093177 -0.4666884852337698 3.653985516374168 0 0 0 
1.3012556792741556 -0.4098894855647155 3.5541723506585043 0 0 0 
1.2883674614434109 -0.4347513460573329 3.6100464933986993 0 0 0 
1.2757916206992663 -0.46005789538888897 3.667103958978869 0 0 0 
1.9693618963186403 0.0038834170352082253 2.7779499374205994 0 0 0 
1.9795026325732656 0.0012588013611495308 2.7877451364665276 0 0 0 
1.989643368827891 -0.0013658143129090528 2.797540335512456 0 0 0 
1.6208726312653827 -0.2801300552687319 3.3480502083261525 0 0 0 
1.6356503960457422 -0.2839548222379342 3.362324432982327 0 0 0 
1.6254502313509303 -0.3066016844789963 3.4137423177130604 0 0 0 
1.6652059256064613 -0.29160435617633884 3.3908728822946754 0 0 0 
1.6799836903868208 -0.29542912314554115 3.4051471069508494 0 0 0 
1.6947614551671804 -0.29925389011474346 3.4194213316070243 0 0 0 
1.7095392199475399 -0.30307865708394577 3.4336955562631983 0 0 0 
1.7243169847278994 -0.3069034240531481 3.4479697809193723 0 0 0 
1.739094749508259 -0.3107281910223504 3.462244005575547 0 0 0 
1.7538725142886185 -0.3145529579915527 3.4765182302317212 0 0 0 
1.768650279068978 -0.3183777249607551 3.4907924548878952 0 0 0 
1.7834280438493375 -0.3222024919299574 3.5050666795440697 0 0 0 
1.798205808629697 -0.32602725889915973 3.519340904200244 0 0 0 
1.8129835734100566 -0.32985202586836204 3.533615128856418 0 0 0 
1.827761338190416 -0.33367679283756435 3.547889353512592 0 0 0 
1.8216346351125225 -0.35737794452457916 3.603241900021505 0 0 0 
1.8367257430941837 -0.3612838106819317 3.6178187909683084 0 0 0 
1.8518168510758446 -0.36518967683928416 3.6323956819151118 0 0 0 
1.8669079590575057 -0.3690955429966367 3.646972572861915 0 0 0 
1.8819990670391666 -0.37300140915398927 3.661549463808719 0 0 0 
1.8970901750208276 -0.3769072753113418 3.6761263547555223 0 0 0 
1.9121812830024885 -0.38081314146869427 3.6907032457023257 0 0 0 
1.9272723909841494 -0.3847190076260468 3.705280136649129 0 0 0 
1.9423634989658103 -0.3886248737833994 3.7198570275959324 0 0 0 
1.7201459207540284 -0.6629325384872493 4.309221176718003 0 0 0 
1.7393488129024075 -0.6679026126962995 4.327769746183565 0 0 0 
1.7790236755613023 -0.648518287240913 4.294243156504565 0 0 0 
1.894681527210809 -0.5356456598418622 4.059936087714743 0 0 0 
1.7969574893475444 -0.6828128353234499 4.383415454580254 0 0 0 
2.190687626800708 -0.530939503005365 4.148820716154852 0 0 0 
2.140855182810353 -0.6553914040631488 4.433486400061348 0 0 0 
2.104203763721609 -0.7623340226682525 4.68019256602926 0 0 0 
1.1184286287331588 -0.12990117621473096 2.86813560733699 0 0 0 
1.1332063935135184 -0.13372594318393327 2.882409831993164 0 0 0 
1.147984158293878 -0.13755071015313558 2.8966840566493386 0 0 0 
1.1627619230742374 -0.1413754771223379 2.910958281305513 0 0 0 
1.0344980334031424 -0.20975972264900922 3.0379050328440247 0 0 0 
1.0505562222003308 -0.21391588773957348 3.0534160521266545 0 0 0 
1.0666144109975193 -0.21807205283013775 3.0689270714092847 0 0 0 
1.2218729821956755 -0.15667454499914713 2.96805517993021 0 0 0 
1.236650746976035 -0.16049931196834955 2.982329404586384 0 0 0 
1.2514285117563946 -0.16432407893755185 2.9966036292425584 0 0 0 
1.266206276536754 -0.16814884590675416 3.010877853898733 0 0 0 
1.2809840413171136 -0.17197361287595647 3.025152078554907 0 0 0 
1.2957618060974732 -0.17579837984515878 3.0394263032110813 0 0 0 
1.3105395708778327 -0.1796231468143611 3.0537005278672558 0 0 0 
1.3253173356581922 -0.1834479137835634 3.0679747525234298 0 0 0 
1.211138110172215 -0.2554775386452165 3.2085262449529552 0 0 0 
1.2271962989694034 -0.25963370373578076 3.2240372642355855 0 0 0 
1.2432544877665916 -0.26378986882634514 3.239548283518215 0 0 0 
1.3844283947796303 -0.19874698166037263 3.1250716511481267 0 0 0 
1.3992061595599898 -0.20257174862957494 3.139345875804301 0 0 0 
1.4139839243403494 -0.20639651559877736 3.1536201004604756 0 0 0 
1.3990836116260157 -0.22739885524450543 3.200612682403551 0 0 0 
1.3843874711517907 -0.2488117194804138 3.248685719569288 0 0 0 
1.3699090285234852 -0.27063860899088354 3.2978522766896563 0 0 0 
1.3556618093469106 -0.29288302446029524 3.348125418496626 0 0 0 
1.3416593392278793 -0.3155484665730288 3.399518209722165 0 0 0 
1.3279151437722014 -0.3386384360134661 3.4520437150982453 0 0 0 
1.3144427485856904 -0.36215643346598625 3.505714999356834 0 0 0 
1.2395634589381717 -0.4259370625070289 3.6387404556633363 0 0 0 
1.2883674614434109 -0.4104905151448004 3.61654716344942 0 0 0 
1.2757916206992663 -0.43531360073985503 3.6737341727473556 0 0 0 
1.9693618963186403 0.017735920372104252 2.78166170450287 0 0 0 
1.9795026325732659 0.015111304698045669 2.7914569035487986 0 0 0 
1.989643368827891 0.012486689023986974 2.801252102594727 0 0 0 
1.6208726312653827 -0.2599432531676098 3.353459245646915 0 0 0 
1.6356503960457422 -0.2637680201368121 3.3677334703030892 0 0 0 
1.6504281608261018 -0.2675927871060144 3.3820076949592637 0 0 0 
1.6652059256064613 -0.2714175540752167 3.396281919615438 0 0 0 
1.6799836903868208 -0.27524232104441904 3.410556144271612 0 0 0 
1.6947614551671804 -0.27906708801362134 3.4248303689277866 0 0 0 
1.7095392199475399 -0.28289185498282365 3.439104593583961 0 0 0 
1.7243169847278994 -0.28671662195202596 3.453378818240135 0 0 0 
1.739094749508259 -0.29054138892122827 3.467653042896309 0 0 0 
1.7538725142886185 -0.2943661558904307 3.4819272675524835 0 0 0 
1.768650279068978 -0.298190922859633 3.496201492208658 0 0 0 
1.7834280438493375 -0.3020156898288353 3.510475716864832 0 0 0 
1.798205808629697 -0.3058404567980376 3.5247499415210064 0 0 0 
1.8129835734100566 -0.3096652237672399 3.539024166177181 0 0 0 
1.827761338190416 -0.31348999073644224 3.553298390833355 0 0 0 
1.7350089265776054 -0.4173548311623556 3.7794647349034136 0 0 0 
1.1184286287331588 -0.10971437411360885 2.873544644657753 0 0 0 
1.1332063935135184 -0.11353914108281116 2.887818869313927 0 0 0 
1.147984158293878 -0.11736390805201347 2.902093093970101 0 0 0 
1.1627619230742374 -0.12118867502121589 2.9163673186262753 0 0 0 
